ply
format ascii 1.0
element vertex 1170
property float x
property float y
property float z
property uchar red
property uchar green
property uchar blue
end_header
-0.082840 -0.213018 -1.817752 188 188 188 
-0.077381 -0.214286 -1.828572 182 182 182 
-0.071006 -0.213018 -1.817752 186 186 186 
-0.065476 -0.214286 -1.828572 180 180 180 
-0.059524 -0.214286 -1.828572 175 175 175 
-0.053571 -0.214286 -1.828572 153 153 153 
-0.047904 -0.215569 -1.839521 141 141 141 
-0.041916 -0.215569 -1.839521 138 138 138 
-0.035928 -0.215569 -1.839521 133 133 133 
-0.030120 -0.216867 -1.850603 91 91 91 
-0.024096 -0.216867 -1.850603 81 81 81 
-0.018072 -0.216867 -1.850603 110 110 110 
-0.012048 -0.216867 -1.850603 203 203 203 
-0.006061 -0.218182 -1.861818 173 173 173 
0.000000 -0.218182 -1.861818 183 183 183 
0.006061 -0.218182 -1.861818 173 173 173 
0.012048 -0.216867 -1.850603 174 174 174 
0.018182 -0.218182 -1.861818 171 171 171 
0.024096 -0.216867 -1.850603 127 127 127 
0.030120 -0.216867 -1.850603 54 54 54 
0.036810 -0.220859 -1.884663 82 82 82 
0.076923 -0.276923 -2.363077 143 143 143 
0.085271 -0.279070 -2.381395 117 117 117 
0.094488 -0.283465 -2.418898 158 158 158 
0.102362 -0.283465 -2.418898 123 123 123 
0.111111 -0.285714 -2.438095 85 85 85 
0.119048 -0.285714 -2.438095 159 159 159 
0.126984 -0.285714 -2.438095 132 132 132 
0.133858 -0.283465 -2.418898 106 106 106 
0.141732 -0.283465 -2.418898 71 71 71 
0.150794 -0.285714 -2.438095 90 90 90 
0.157480 -0.283465 -2.418898 39 39 39 
0.165354 -0.283465 -2.418898 86 86 86 
0.174603 -0.285714 -2.438095 80 80 80 
0.181102 -0.283465 -2.418898 102 102 102 
0.188976 -0.283465 -2.418898 113 113 113 
0.196850 -0.283465 -2.418898 135 135 135 
0.204724 -0.283465 -2.418898 123 123 123 
0.214286 -0.285714 -2.438095 18 18 18 
0.220472 -0.283465 -2.418898 55 55 55 
0.228346 -0.283465 -2.418898 106 106 106 
0.236220 -0.283465 -2.418898 56 56 56 
0.242188 -0.281250 -2.400000 92 92 92 
0.251969 -0.283465 -2.418898 76 76 76 
0.259843 -0.283465 -2.418898 78 78 78 
0.265625 -0.281250 -2.400000 31 31 31 
0.277778 -0.285714 -2.438095 155 155 155 
0.285714 -0.285714 -2.438095 155 155 155 
0.289062 -0.281250 -2.400000 141 141 141 
0.299213 -0.283465 -2.418898 109 109 109 
0.307087 -0.283465 -2.418898 127 127 127 
0.314961 -0.283465 -2.418898 129 129 129 
0.322835 -0.283465 -2.418898 112 112 112 
0.328125 -0.281250 -2.400000 136 136 136 
0.341270 -0.285714 -2.438095 126 126 126 
0.341085 -0.279070 -2.381395 127 127 127 
0.351562 -0.281250 -2.400000 124 124 124 
0.365079 -0.285714 -2.438095 121 121 121 
0.367188 -0.281250 -2.400000 112 112 112 
0.377953 -0.283465 -2.418898 109 109 109 
0.376923 -0.276923 -2.363077 105 105 105 
0.381679 -0.274809 -2.345038 106 106 106 
0.386364 -0.272727 -2.327273 102 102 102 
0.412214 -0.274809 -2.345038 98 98 98 
0.416667 -0.272727 -2.327273 99 99 99 
0.264069 -0.155844 -1.329870 91 91 91 
0.267241 -0.155172 -1.324138 91 91 91 
0.271552 -0.155172 -1.324138 86 86 86 
0.277056 -0.155844 -1.329870 86 86 86 
0.281385 -0.155844 -1.329870 82 82 82 
0.286957 -0.156522 -1.335652 80 80 80 
0.295154 -0.158590 -1.353304 77 77 77 
0.302222 -0.160000 -1.365333 76 76 76 
0.306667 -0.160000 -1.365333 70 70 70 
0.313901 -0.161435 -1.377578 67 67 67 
0.318386 -0.161435 -1.377578 63 63 63 
0.322870 -0.161435 -1.377578 59 59 59 
0.327354 -0.161435 -1.377578 53 53 53 
0.331839 -0.161435 -1.377578 48 48 48 
0.336323 -0.161435 -1.377578 52 52 52 
0.340807 -0.161435 -1.377578 49 49 49 
0.345291 -0.161435 -1.377578 38 38 38 
0.349776 -0.161435 -1.377578 42 42 42 
0.354260 -0.161435 -1.377578 41 41 41 
0.666667 -0.292683 -2.497561 44 44 44 
0.680328 -0.295082 -2.518033 43 43 43 
0.688525 -0.295082 -2.518033 45 45 45 
0.691057 -0.292683 -2.497561 43 43 43 
0.688000 -0.288000 -2.457600 41 41 41 
0.701613 -0.290323 -2.477419 26 26 26 
0.709677 -0.290323 -2.477419 18 18 18 
0.712000 -0.288000 -2.457600 18 18 18 
0.714286 -0.285714 -2.438095 21 21 21 
0.716535 -0.283465 -2.418898 19 19 19 
0.724409 -0.283465 -2.418898 22 22 22 
0.732283 -0.283465 -2.418898 19 19 19 
0.740157 -0.283465 -2.418898 17 17 17 
0.748031 -0.283465 -2.418898 21 21 21 
0.755906 -0.283465 -2.418898 20 20 20 
0.757812 -0.281250 -2.400000 17 17 17 
0.765625 -0.281250 -2.400000 32 32 32 
0.773438 -0.281250 -2.400000 30 30 30 
0.787402 -0.283465 -2.418898 26 26 26 
0.795276 -0.283465 -2.418898 41 41 41 
0.796875 -0.281250 -2.400000 35 35 35 
0.811024 -0.283465 -2.418898 26 26 26 
0.812500 -0.281250 -2.400000 56 56 56 
0.826772 -0.283465 -2.418898 119 119 119 
0.834646 -0.283465 -2.418898 103 103 103 
0.842520 -0.283465 -2.418898 72 72 72 
0.843750 -0.281250 -2.400000 47 47 47 
0.858268 -0.283465 -2.418898 31 31 31 
0.859375 -0.281250 -2.400000 31 31 31 
0.874016 -0.283465 -2.418898 42 42 42 
0.881890 -0.283465 -2.418898 55 55 55 
0.896825 -0.285714 -2.438095 25 25 25 
0.897638 -0.283465 -2.418898 11 11 11 
0.905512 -0.283465 -2.418898 18 18 18 
0.906250 -0.281250 -2.400000 16 16 16 
0.914062 -0.281250 -2.400000 14 14 14 
0.929134 -0.283465 -2.418898 17 17 17 
0.959677 -0.290323 -2.477419 19 19 19 
0.944882 -0.283465 -2.418898 20 20 20 
0.960317 -0.285714 -2.438095 16 16 16 
0.968254 -0.285714 -2.438095 16 16 16 
0.984000 -0.288000 -2.457600 13 13 13 
0.992000 -0.288000 -2.457600 14 14 14 
1.008065 -0.290323 -2.477419 13 13 13 
1.008000 -0.288000 -2.457600 22 22 22 
1.032520 -0.292683 -2.497561 62 62 62 
1.024000 -0.288000 -2.457600 63 63 63 
1.032000 -0.288000 -2.457600 60 60 60 
1.031746 -0.285714 -2.438095 58 58 58 
1.048000 -0.288000 -2.457600 60 60 60 
1.654321 -0.444444 -3.792593 59 59 59 
1.646341 -0.439024 -3.746342 59 59 59 
1.658537 -0.439024 -3.746342 59 59 59 
1.670732 -0.439024 -3.746342 55 55 55 
1.703704 -0.444444 -3.792593 51 51 51 
1.695122 -0.439024 -3.746342 50 50 50 
1.728395 -0.444444 -3.792593 55 55 55 
1.740741 -0.444444 -3.792593 57 57 57 
1.753086 -0.444444 -3.792593 56 56 56 
1.765432 -0.444444 -3.792593 55 55 55 
1.756098 -0.439024 -3.746342 54 54 54 
1.768293 -0.439024 -3.746342 58 58 58 
1.780488 -0.439024 -3.746342 61 61 61 
1.792683 -0.439024 -3.746342 58 58 58 
1.804878 -0.439024 -3.746342 57 57 57 
1.839506 -0.444444 -3.792593 52 52 52 
1.829268 -0.439024 -3.746342 53 53 53 
1.841463 -0.439024 -3.746342 55 55 55 
1.853659 -0.439024 -3.746342 52 52 52 
1.865854 -0.439024 -3.746342 52 52 52 
1.901235 -0.444444 -3.792593 56 56 56 
1.890244 -0.439024 -3.746342 61 61 61 
1.902439 -0.439024 -3.746342 62 62 62 
1.891566 -0.433735 -3.701205 58 58 58 
1.903614 -0.433735 -3.701205 62 62 62 
1.892857 -0.428571 -3.657143 60 60 60 
1.860465 -0.418605 -3.572093 62 62 62 
1.872093 -0.418605 -3.572093 67 67 67 
2.130952 -0.428571 -3.657143 95 95 95 
2.142857 -0.428571 -3.657143 93 93 93 
2.154762 -0.428571 -3.657143 88 88 88 
2.192771 -0.433735 -3.701205 87 87 87 
2.164706 -0.423529 -3.614118 90 90 90 
-2.023809 -0.440476 -3.657143 51 51 51 
-2.060976 -0.451219 -3.746342 55 55 55 
-1.976471 -0.435294 -3.614118 58 58 58 
-2.036585 -0.451219 -3.746342 58 58 58 
-2.024390 -0.451219 -3.746342 59 59 59 
-1.987952 -0.445783 -3.701205 59 59 59 
-2.000000 -0.451219 -3.746342 59 59 59 
-1.987805 -0.451219 -3.746342 59 59 59 
-2.000000 -0.456790 -3.792593 61 61 61 
-1.987654 -0.456790 -3.792593 53 53 53 
-2.000000 -0.462500 -3.840000 50 50 50 
-1.987500 -0.462500 -3.840000 58 58 58 
-1.975000 -0.462500 -3.840000 68 68 68 
-1.962500 -0.462500 -3.840000 67 67 67 
-1.950000 -0.462500 -3.840000 69 69 69 
-1.962025 -0.468354 -3.888608 68 68 68 
-1.925000 -0.462500 -3.840000 71 71 71 
-1.961538 -0.474359 -3.938462 68 68 68 
-1.924051 -0.468354 -3.888608 74 74 74 
-1.864197 -0.456790 -3.792593 74 74 74 
-1.923077 -0.474359 -3.938462 78 78 78 
-1.910256 -0.474359 -3.938462 77 77 77 
-1.873418 -0.468354 -3.888608 80 80 80 
-1.860759 -0.468354 -3.888608 78 78 78 
-1.825000 -0.462500 -3.840000 80 80 80 
-1.812500 -0.462500 -3.840000 80 80 80 
-1.800000 -0.462500 -3.840000 81 81 81 
-1.787500 -0.462500 -3.840000 82 82 82 
-1.797468 -0.468354 -3.888608 84 84 84 
-1.762500 -0.462500 -3.840000 83 83 83 
-1.772152 -0.468354 -3.888608 88 88 88 
-1.759494 -0.468354 -3.888608 90 90 90 
-1.746835 -0.468354 -3.888608 93 93 93 
-1.712500 -0.462500 -3.840000 93 93 93 
-1.721519 -0.468354 -3.888608 97 97 97 
-1.708861 -0.468354 -3.888608 100 100 100 
-1.696203 -0.468354 -3.888608 100 100 100 
-1.683544 -0.468354 -3.888608 96 96 96 
-1.670886 -0.468354 -3.888608 98 98 98 
-1.679487 -0.474359 -3.938462 98 98 98 
-1.645570 -0.468354 -3.888608 100 100 100 
-1.653846 -0.474359 -3.938462 100 100 100 
-1.620253 -0.468354 -3.888608 109 109 109 
-1.607595 -0.468354 -3.888608 112 112 112 
-1.594937 -0.468354 -3.888608 115 115 115 
-1.582278 -0.468354 -3.888608 119 119 119 
-1.569620 -0.468354 -3.888608 123 123 123 
-1.556962 -0.468354 -3.888608 117 117 117 
-1.544304 -0.468354 -3.888608 124 124 124 
-1.531646 -0.468354 -3.888608 126 126 126 
-1.518987 -0.468354 -3.888608 135 135 135 
-1.525641 -0.474359 -3.938462 139 139 139 
-1.493671 -0.468354 -3.888608 139 139 139 
-1.481013 -0.468354 -3.888608 139 139 139 
-1.487180 -0.474359 -3.938462 144 144 144 
-1.474359 -0.474359 -3.938462 144 144 144 
-1.443038 -0.468354 -3.888608 144 144 144 
-1.448718 -0.474359 -3.938462 144 144 144 
-1.435897 -0.474359 -3.938462 142 142 142 
-1.423077 -0.474359 -3.938462 143 143 143 
-1.392405 -0.468354 -3.888608 138 138 138 
-1.379747 -0.468354 -3.888608 138 138 138 
-1.367089 -0.468354 -3.888608 144 144 144 
-1.320988 -0.456790 -3.792593 145 145 145 
-1.308642 -0.456790 -3.792593 148 148 148 
-1.265060 -0.445783 -3.701205 146 146 146 
-1.238095 -0.440476 -3.657143 146 146 146 
-1.197674 -0.430233 -3.572093 144 144 144 
-1.159091 -0.420455 -3.490909 146 146 146 
-1.109890 -0.406593 -3.375824 142 142 142 
-1.075269 -0.397849 -3.303226 139 139 139 
-1.053192 -0.393617 -3.268085 133 133 133 
-1.020833 -0.385417 -3.200000 134 134 134 
-1.021053 -0.389474 -3.233684 78 78 78 
-1.000000 -0.385417 -3.200000 3 3 3 
-0.989583 -0.385417 -3.200000 25 25 25 
-0.979167 -0.385417 -3.200000 13 13 13 
-0.968750 -0.385417 -3.200000 66 66 66 
-0.958333 -0.385417 -3.200000 52 52 52 
-0.947917 -0.385417 -3.200000 7 7 7 
-0.927835 -0.381443 -3.167011 23 23 23 
-0.917526 -0.381443 -3.167011 24 24 24 
-0.907216 -0.381443 -3.167011 119 119 119 
-0.896907 -0.381443 -3.167011 124 124 124 
-0.886598 -0.381443 -3.167011 117 117 117 
-0.885417 -0.385417 -3.200000 114 114 114 
-0.865979 -0.381443 -3.167011 117 117 117 
-0.873684 -0.389474 -3.233684 116 116 116 
-0.481707 -0.225610 -1.873171 109 109 109 
-0.484472 -0.229814 -1.908075 108 108 108 
-0.481250 -0.231250 -1.920000 106 106 106 
-0.475000 -0.231250 -1.920000 105 105 105 
-0.465839 -0.229814 -1.908075 117 117 117 
-0.459627 -0.229814 -1.908075 206 206 206 
-0.450617 -0.228395 -1.896296 208 208 208 
-0.441718 -0.226994 -1.884663 208 208 208 
-0.435583 -0.226994 -1.884663 206 206 206 
-0.429448 -0.226994 -1.884663 209 209 209 
-0.423313 -0.226994 -1.884663 210 210 210 
-0.412121 -0.224242 -1.861818 213 213 213 
-0.408537 -0.225610 -1.873171 214 214 214 
-0.404908 -0.226994 -1.884663 217 217 217 
-0.398773 -0.226994 -1.884663 217 217 217 
-0.390244 -0.225610 -1.873171 218 218 218 
-0.381818 -0.224242 -1.861818 219 219 219 
-0.373494 -0.222892 -1.850603 215 215 215 
-0.367470 -0.222892 -1.850603 175 175 175 
-0.361446 -0.222892 -1.850603 162 162 162 
-0.353293 -0.221557 -1.839521 184 184 184 
-0.347305 -0.221557 -1.839521 219 219 219 
-0.341317 -0.221557 -1.839521 228 228 228 
-0.335329 -0.221557 -1.839521 230 230 230 
-0.329341 -0.221557 -1.839521 233 233 233 
-0.321429 -0.220238 -1.828572 234 234 234 
-0.319277 -0.222892 -1.850603 235 235 235 
-0.307692 -0.218935 -1.817752 237 237 237 
-0.300000 -0.217647 -1.807059 238 238 238 
-0.292398 -0.216374 -1.796491 237 237 237 
-0.288235 -0.217647 -1.807059 235 235 235 
-0.282353 -0.217647 -1.807059 233 233 233 
-0.276471 -0.217647 -1.807059 233 233 233 
-0.270588 -0.217647 -1.807059 235 235 235 
-0.263158 -0.216374 -1.796491 239 239 239 
-0.257310 -0.216374 -1.796491 241 241 241 
-0.252941 -0.217647 -1.807059 243 243 243 
-0.245614 -0.216374 -1.796491 244 244 244 
-0.239766 -0.216374 -1.796491 245 245 245 
-0.233918 -0.216374 -1.796491 246 246 246 
-0.228070 -0.216374 -1.796491 244 244 244 
-0.222222 -0.216374 -1.796491 226 226 226 
-0.216374 -0.216374 -1.796491 212 212 212 
-0.210526 -0.216374 -1.796491 205 205 205 
-0.204678 -0.216374 -1.796491 210 210 210 
-0.197674 -0.215116 -1.786047 224 224 224 
-0.190751 -0.213873 -1.775723 218 218 218 
-0.184971 -0.213873 -1.775723 219 219 219 
-0.179191 -0.213873 -1.775723 219 219 219 
-0.174419 -0.215116 -1.786047 219 219 219 
-0.167630 -0.213873 -1.775723 219 219 219 
-0.161850 -0.213873 -1.775723 206 206 206 
-0.156069 -0.213873 -1.775723 102 102 102 
-0.151163 -0.215116 -1.786047 115 115 115 
-0.145349 -0.215116 -1.786047 94 94 94 
-0.138728 -0.213873 -1.775723 116 116 116 
-0.132948 -0.213873 -1.775723 203 203 203 
-0.128655 -0.216374 -1.796491 232 232 232 
-0.122807 -0.216374 -1.796491 227 227 227 
-0.116279 -0.215116 -1.786047 234 234 234 
-0.111111 -0.216374 -1.796491 236 236 236 
-0.106509 -0.218935 -1.817752 229 229 229 
-0.100592 -0.218935 -1.817752 159 159 159 
-0.094675 -0.218935 -1.817752 165 165 165 
-0.088757 -0.218935 -1.817752 140 140 140 
-0.082840 -0.218935 -1.817752 170 170 170 
-0.076923 -0.218935 -1.817752 183 183 183 
-0.071006 -0.218935 -1.817752 182 182 182 
-0.065089 -0.218935 -1.817752 180 180 180 
-0.059524 -0.220238 -1.828572 182 182 182 
-0.053571 -0.220238 -1.828572 171 171 171 
-0.047904 -0.221557 -1.839521 154 154 154 
-0.041916 -0.221557 -1.839521 137 137 137 
-0.035928 -0.221557 -1.839521 122 122 122 
-0.030120 -0.222892 -1.850603 79 79 79 
-0.024096 -0.222892 -1.850603 86 86 86 
-0.018072 -0.222892 -1.850603 100 100 100 
-0.012048 -0.222892 -1.850603 199 199 199 
-0.006061 -0.224242 -1.861818 178 178 178 
0.000000 -0.224242 -1.861818 183 183 183 
0.006061 -0.224242 -1.861818 172 172 172 
0.012048 -0.222892 -1.850603 175 175 175 
0.018182 -0.224242 -1.861818 172 172 172 
0.024096 -0.222892 -1.850603 134 134 134 
0.030120 -0.222892 -1.850603 55 55 55 
0.036810 -0.226994 -1.884663 78 78 78 
0.076923 -0.284615 -2.363077 87 87 87 
0.085271 -0.286822 -2.381395 41 41 41 
0.093750 -0.289062 -2.400000 157 157 157 
0.102362 -0.291339 -2.418898 137 137 137 
0.111111 -0.293651 -2.438095 69 69 69 
0.119048 -0.293651 -2.438095 138 138 138 
0.126984 -0.293651 -2.438095 147 147 147 
0.133858 -0.291339 -2.418898 137 137 137 
0.141732 -0.291339 -2.418898 84 84 84 
0.149606 -0.291339 -2.418898 75 75 75 
0.157480 -0.291339 -2.418898 111 111 111 
0.165354 -0.291339 -2.418898 102 102 102 
0.174603 -0.293651 -2.438095 121 121 121 
0.181102 -0.291339 -2.418898 126 126 126 
0.188976 -0.291339 -2.418898 152 152 152 
0.195312 -0.289062 -2.400000 146 146 146 
0.204724 -0.291339 -2.418898 132 132 132 
0.212598 -0.291339 -2.418898 97 97 97 
0.220472 -0.291339 -2.418898 73 73 73 
0.228346 -0.291339 -2.418898 120 120 120 
0.236220 -0.291339 -2.418898 45 45 45 
0.242188 -0.289062 -2.400000 94 94 94 
0.250000 -0.289062 -2.400000 72 72 72 
0.259843 -0.291339 -2.418898 75 75 75 
0.265625 -0.289062 -2.400000 90 90 90 
0.277778 -0.293651 -2.438095 152 152 152 
0.285714 -0.293651 -2.438095 143 143 143 
0.289062 -0.289062 -2.400000 114 114 114 
0.299213 -0.291339 -2.418898 65 65 65 
0.307087 -0.291339 -2.418898 113 113 113 
0.314961 -0.291339 -2.418898 120 120 120 
0.322835 -0.291339 -2.418898 95 95 95 
0.330709 -0.291339 -2.418898 132 132 132 
0.341270 -0.293651 -2.438095 90 90 90 
0.343750 -0.289062 -2.400000 99 99 99 
0.351562 -0.289062 -2.400000 141 141 141 
0.365079 -0.293651 -2.438095 137 137 137 
0.370079 -0.291339 -2.418898 132 132 132 
0.377953 -0.291339 -2.418898 128 128 128 
0.376923 -0.284615 -2.363077 121 121 121 
0.384615 -0.284615 -2.363077 129 129 129 
0.386364 -0.280303 -2.327273 117 117 117 
0.400000 -0.284615 -2.363077 111 111 111 
0.410853 -0.286822 -2.381395 114 114 114 
0.415385 -0.284615 -2.363077 114 114 114 
0.419847 -0.282443 -2.345038 104 104 104 
0.430769 -0.284615 -2.363077 98 98 98 
0.441860 -0.286822 -2.381395 94 94 94 
0.446154 -0.284615 -2.363077 93 93 93 
0.453846 -0.284615 -2.363077 91 91 91 
0.458015 -0.282443 -2.345038 92 92 92 
0.465649 -0.282443 -2.345038 91 91 91 
0.275862 -0.159483 -1.324138 86 86 86 
0.281385 -0.160173 -1.329870 83 83 83 
0.286957 -0.160870 -1.335652 81 81 81 
0.295154 -0.162996 -1.353304 78 78 78 
0.302222 -0.164444 -1.365333 76 76 76 
0.306667 -0.164444 -1.365333 70 70 70 
0.312500 -0.165179 -1.371429 69 69 69 
0.318386 -0.165919 -1.377578 63 63 63 
0.322870 -0.165919 -1.377578 60 60 60 
0.327354 -0.165919 -1.377578 54 54 54 
0.331839 -0.165919 -1.377578 51 51 51 
0.336323 -0.165919 -1.377578 51 51 51 
0.340807 -0.165919 -1.377578 51 51 51 
0.345291 -0.165919 -1.377578 41 41 41 
0.349776 -0.165919 -1.377578 67 67 67 
0.354260 -0.165919 -1.377578 67 67 67 
0.648000 -0.296000 -2.457600 68 68 68 
0.666667 -0.300813 -2.497561 71 71 71 
0.680328 -0.303279 -2.518033 69 69 69 
0.688525 -0.303279 -2.518033 70 70 70 
0.691057 -0.300813 -2.497561 68 68 68 
0.688000 -0.296000 -2.457600 65 65 65 
0.701613 -0.298387 -2.477419 35 35 35 
0.709677 -0.298387 -2.477419 15 15 15 
0.712000 -0.296000 -2.457600 19 19 19 
0.714286 -0.293651 -2.438095 19 19 19 
0.716535 -0.291339 -2.418898 18 18 18 
0.724409 -0.291339 -2.418898 22 22 22 
0.732283 -0.291339 -2.418898 18 18 18 
0.740157 -0.291339 -2.418898 19 19 19 
0.748031 -0.291339 -2.418898 17 17 17 
0.755906 -0.291339 -2.418898 18 18 18 
0.757812 -0.289062 -2.400000 16 16 16 
0.765625 -0.289062 -2.400000 24 24 24 
0.773438 -0.289062 -2.400000 29 29 29 
0.781250 -0.289062 -2.400000 18 18 18 
0.795276 -0.291339 -2.418898 20 20 20 
0.796875 -0.289062 -2.400000 28 28 28 
0.811024 -0.291339 -2.418898 64 64 64 
0.812500 -0.289062 -2.400000 85 85 85 
0.826772 -0.291339 -2.418898 109 109 109 
0.834646 -0.291339 -2.418898 107 107 107 
0.842520 -0.291339 -2.418898 75 75 75 
0.850394 -0.291339 -2.418898 55 55 55 
0.858268 -0.291339 -2.418898 37 37 37 
0.859375 -0.289062 -2.400000 38 38 38 
0.874016 -0.291339 -2.418898 50 50 50 
0.881890 -0.291339 -2.418898 63 63 63 
0.896825 -0.293651 -2.438095 20 20 20 
0.897638 -0.291339 -2.418898 15 15 15 
0.905512 -0.291339 -2.418898 17 17 17 
0.906250 -0.289062 -2.400000 15 15 15 
0.914062 -0.289062 -2.400000 14 14 14 
0.929134 -0.291339 -2.418898 16 16 16 
0.959677 -0.298387 -2.477419 21 21 21 
0.944882 -0.291339 -2.418898 20 20 20 
0.960317 -0.293651 -2.438095 17 17 17 
0.968254 -0.293651 -2.438095 16 16 16 
0.991935 -0.298387 -2.477419 13 13 13 
1.000000 -0.298387 -2.477419 13 13 13 
1.008065 -0.298387 -2.477419 12 12 12 
1.016129 -0.298387 -2.477419 21 21 21 
1.032520 -0.300813 -2.497561 62 62 62 
1.032258 -0.298387 -2.477419 61 61 61 
1.032000 -0.296000 -2.457600 59 59 59 
1.040000 -0.296000 -2.457600 59 59 59 
1.048000 -0.296000 -2.457600 59 59 59 
1.654321 -0.456790 -3.792593 59 59 59 
1.646341 -0.451219 -3.746342 58 58 58 
1.638554 -0.445783 -3.701205 59 59 59 
1.670732 -0.451219 -3.746342 53 53 53 
1.682927 -0.451219 -3.746342 57 57 57 
1.695122 -0.451219 -3.746342 54 54 54 
1.728395 -0.456790 -3.792593 53 53 53 
1.740741 -0.456790 -3.792593 48 48 48 
1.753086 -0.456790 -3.792593 56 56 56 
1.765432 -0.456790 -3.792593 57 57 57 
1.756098 -0.451219 -3.746342 58 58 58 
1.768293 -0.451219 -3.746342 57 57 57 
1.780488 -0.451219 -3.746342 60 60 60 
1.792683 -0.451219 -3.746342 58 58 58 
1.804878 -0.451219 -3.746342 57 57 57 
1.839506 -0.456790 -3.792593 57 57 57 
1.829268 -0.451219 -3.746342 56 56 56 
1.841463 -0.451219 -3.746342 48 48 48 
1.853659 -0.451219 -3.746342 50 50 50 
1.888889 -0.456790 -3.792593 53 53 53 
1.901235 -0.456790 -3.792593 54 54 54 
1.890244 -0.451219 -3.746342 57 57 57 
1.902439 -0.451219 -3.746342 61 61 61 
1.891566 -0.445783 -3.701205 58 58 58 
1.903614 -0.445783 -3.701205 62 62 62 
1.892857 -0.440476 -3.657143 61 61 61 
1.860465 -0.430233 -3.572093 62 62 62 
1.872093 -0.430233 -3.572093 66 66 66 
1.862069 -0.425287 -3.531035 79 79 79 
2.130952 -0.440476 -3.657143 89 89 89 
2.142857 -0.440476 -3.657143 85 85 85 
2.154762 -0.440476 -3.657143 83 83 83 
2.192771 -0.445783 -3.701205 86 86 86 
2.178571 -0.440476 -3.657143 89 89 89 
2.190476 -0.440476 -3.657143 86 86 86 
-2.048193 -0.457831 -3.701205 55 55 55 
-2.060976 -0.463415 -3.746342 62 62 62 
-2.000000 -0.452381 -3.657143 72 72 72 
-2.036585 -0.463415 -3.746342 76 76 76 
-2.024390 -0.463415 -3.746342 78 78 78 
-1.987952 -0.457831 -3.701205 76 76 76 
-1.975904 -0.457831 -3.701205 79 79 79 
-1.987805 -0.463415 -3.746342 81 81 81 
-2.000000 -0.469136 -3.792593 82 82 82 
-1.987654 -0.469136 -3.792593 84 84 84 
-1.975309 -0.469136 -3.792593 85 85 85 
-1.987500 -0.475000 -3.840000 85 85 85 
-1.975000 -0.475000 -3.840000 87 87 87 
-1.962500 -0.475000 -3.840000 88 88 88 
-1.950000 -0.475000 -3.840000 90 90 90 
-1.937500 -0.475000 -3.840000 90 90 90 
-1.925000 -0.475000 -3.840000 94 94 94 
-1.961538 -0.487179 -3.938462 93 93 93 
-1.900000 -0.475000 -3.840000 96 96 96 
-1.864197 -0.469136 -3.792593 96 96 96 
-1.923077 -0.487179 -3.938462 101 101 101 
-1.886076 -0.481013 -3.888608 101 101 101 
-1.873418 -0.481013 -3.888608 104 104 104 
-1.837500 -0.475000 -3.840000 102 102 102 
-1.802469 -0.469136 -3.792593 102 102 102 
-1.812500 -0.475000 -3.840000 105 105 105 
-1.800000 -0.475000 -3.840000 107 107 107 
-1.787500 -0.475000 -3.840000 107 107 107 
-1.775000 -0.475000 -3.840000 112 112 112 
-1.762500 -0.475000 -3.840000 111 111 111 
-1.750000 -0.475000 -3.840000 116 116 116 
-1.737500 -0.475000 -3.840000 116 116 116 
-1.746835 -0.481013 -3.888608 120 120 120 
-1.712500 -0.475000 -3.840000 118 118 118 
-1.721519 -0.481013 -3.888608 124 124 124 
-1.708861 -0.481013 -3.888608 126 126 126 
-1.696203 -0.481013 -3.888608 127 127 127 
-1.683544 -0.481013 -3.888608 126 126 126 
-1.670886 -0.481013 -3.888608 127 127 127 
-1.658228 -0.481013 -3.888608 128 128 128 
-1.625000 -0.475000 -3.840000 126 126 126 
-1.632911 -0.481013 -3.888608 125 125 125 
-1.620253 -0.481013 -3.888608 137 137 137 
-1.607595 -0.481013 -3.888608 140 140 140 
-1.594937 -0.481013 -3.888608 143 143 143 
-1.582278 -0.481013 -3.888608 142 142 142 
-1.569620 -0.481013 -3.888608 145 145 145 
-1.556962 -0.481013 -3.888608 139 139 139 
-1.544304 -0.481013 -3.888608 144 144 144 
-1.531646 -0.481013 -3.888608 152 152 152 
-1.518987 -0.481013 -3.888608 156 156 156 
-1.525641 -0.487179 -3.938462 161 161 161 
-1.475000 -0.475000 -3.840000 165 165 165 
-1.481013 -0.481013 -3.888608 164 164 164 
-1.487180 -0.487179 -3.938462 167 167 167 
-1.474359 -0.487179 -3.938462 165 165 165 
-1.443038 -0.481013 -3.888608 167 167 167 
-1.448718 -0.487179 -3.938462 162 162 162 
-1.417722 -0.481013 -3.888608 161 161 161 
-1.405063 -0.481013 -3.888608 161 161 161 
-1.375000 -0.475000 -3.840000 160 160 160 
-1.362500 -0.475000 -3.840000 159 159 159 
-1.350000 -0.475000 -3.840000 162 162 162 
-1.304878 -0.463415 -3.746342 160 160 160 
-1.292683 -0.463415 -3.746342 161 161 161 
-1.250000 -0.452381 -3.657143 159 159 159 
-1.223529 -0.447059 -3.614118 158 158 158 
-1.183908 -0.436782 -3.531035 155 155 155 
-1.146067 -0.426966 -3.451685 152 152 152 
-1.097826 -0.413043 -3.339131 150 150 150 
-1.063830 -0.404255 -3.268085 147 147 147 
-1.042105 -0.400000 -3.233684 140 140 140 
-1.020833 -0.395833 -3.200000 134 134 134 
-1.010417 -0.395833 -3.200000 52 52 52 
-1.000000 -0.395833 -3.200000 8 8 8 
-0.979381 -0.391753 -3.167011 21 21 21 
-0.969072 -0.391753 -3.167011 20 20 20 
-0.958763 -0.391753 -3.167011 90 90 90 
-0.958333 -0.395833 -3.200000 26 26 26 
-0.947917 -0.395833 -3.200000 18 18 18 
-0.927835 -0.391753 -3.167011 14 14 14 
-0.917526 -0.391753 -3.167011 47 47 47 
-0.907216 -0.391753 -3.167011 151 151 151 
-0.896907 -0.391753 -3.167011 120 120 120 
-0.877551 -0.387755 -3.134694 131 131 131 
-0.876289 -0.391753 -3.167011 122 122 122 
-0.865979 -0.391753 -3.167011 123 123 123 
-0.864583 -0.395833 -3.200000 122 122 122 
-0.484663 -0.233129 -1.884663 115 115 115 
-0.484472 -0.236025 -1.908075 115 115 115 
-0.481250 -0.237500 -1.920000 112 112 112 
-0.475000 -0.237500 -1.920000 110 110 110 
-0.465839 -0.236025 -1.908075 141 141 141 
-0.459627 -0.236025 -1.908075 217 217 217 
-0.450617 -0.234568 -1.896296 204 204 204 
-0.441718 -0.233129 -1.884663 209 209 209 
-0.435583 -0.233129 -1.884663 206 206 206 
-0.429448 -0.233129 -1.884663 209 209 209 
-0.423313 -0.233129 -1.884663 210 210 210 
-0.412121 -0.230303 -1.861818 212 212 212 
-0.408537 -0.231707 -1.873171 214 214 214 
-0.404908 -0.233129 -1.884663 217 217 217 
-0.396341 -0.231707 -1.873171 217 217 217 
-0.387879 -0.230303 -1.861818 220 220 220 
-0.381818 -0.230303 -1.861818 219 219 219 
-0.373494 -0.228916 -1.850603 213 213 213 
-0.367470 -0.228916 -1.850603 168 168 168 
-0.361446 -0.228916 -1.850603 164 164 164 
-0.353293 -0.227545 -1.839521 181 181 181 
-0.347305 -0.227545 -1.839521 215 215 215 
-0.341317 -0.227545 -1.839521 225 225 225 
-0.335329 -0.227545 -1.839521 226 226 226 
-0.329341 -0.227545 -1.839521 229 229 229 
-0.321429 -0.226190 -1.828572 230 230 230 
-0.319277 -0.228916 -1.850603 231 231 231 
-0.307692 -0.224852 -1.817752 233 233 233 
-0.300000 -0.223529 -1.807059 234 234 234 
-0.292398 -0.222222 -1.796491 235 235 235 
-0.288235 -0.223529 -1.807059 236 236 236 
-0.282353 -0.223529 -1.807059 236 236 236 
-0.274854 -0.222222 -1.796491 236 236 236 
-0.269006 -0.222222 -1.796491 237 237 237 
-0.263158 -0.222222 -1.796491 240 240 240 
-0.257310 -0.222222 -1.796491 242 242 242 
-0.251462 -0.222222 -1.796491 244 244 244 
-0.245614 -0.222222 -1.796491 244 244 244 
-0.239766 -0.222222 -1.796491 244 244 244 
-0.233918 -0.222222 -1.796491 244 244 244 
-0.228070 -0.222222 -1.796491 234 234 234 
-0.222222 -0.222222 -1.796491 216 216 216 
-0.215116 -0.220930 -1.786047 206 206 206 
-0.209302 -0.220930 -1.786047 203 203 203 
-0.204678 -0.222222 -1.796491 213 213 213 
-0.197674 -0.220930 -1.786047 225 225 225 
-0.190751 -0.219653 -1.775723 219 219 219 
-0.184971 -0.219653 -1.775723 221 221 221 
-0.179191 -0.219653 -1.775723 221 221 221 
-0.174419 -0.220930 -1.786047 221 221 221 
-0.167630 -0.219653 -1.775723 220 220 220 
-0.161850 -0.219653 -1.775723 203 203 203 
-0.156069 -0.219653 -1.775723 98 98 98 
-0.151163 -0.220930 -1.786047 117 117 117 
-0.145349 -0.220930 -1.786047 101 101 101 
-0.138728 -0.219653 -1.775723 110 110 110 
-0.133721 -0.220930 -1.786047 186 186 186 
-0.128655 -0.222222 -1.796491 231 231 231 
-0.122807 -0.222222 -1.796491 225 225 225 
-0.116959 -0.222222 -1.796491 234 234 234 
-0.111765 -0.223529 -1.807059 236 236 236 
-0.106509 -0.224852 -1.817752 215 215 215 
-0.100592 -0.224852 -1.817752 138 138 138 
-0.094675 -0.224852 -1.817752 166 166 166 
-0.088757 -0.224852 -1.817752 165 165 165 
-0.082840 -0.224852 -1.817752 144 144 144 
-0.077381 -0.226190 -1.828572 188 188 188 
-0.071006 -0.224852 -1.817752 180 180 180 
-0.065089 -0.224852 -1.817752 182 182 182 
-0.059172 -0.224852 -1.817752 184 184 184 
-0.053571 -0.226190 -1.828572 181 181 181 
-0.047904 -0.227545 -1.839521 175 175 175 
-0.041916 -0.227545 -1.839521 145 145 145 
-0.035928 -0.227545 -1.839521 106 106 106 
-0.030120 -0.228916 -1.850603 77 77 77 
-0.024096 -0.228916 -1.850603 88 88 88 
-0.018072 -0.228916 -1.850603 95 95 95 
-0.011976 -0.227545 -1.839521 191 191 191 
-0.006061 -0.230303 -1.861818 183 183 183 
0.000000 -0.230303 -1.861818 181 181 181 
0.006061 -0.230303 -1.861818 172 172 172 
0.012048 -0.228916 -1.850603 176 176 176 
0.018293 -0.231707 -1.873171 173 173 173 
0.024096 -0.228916 -1.850603 140 140 140 
0.030120 -0.228916 -1.850603 57 57 57 
0.036810 -0.233129 -1.884663 76 76 76 
0.042424 -0.230303 -1.861818 71 71 71 
0.076336 -0.290076 -2.345038 139 139 139 
0.085271 -0.294574 -2.381395 49 49 49 
0.093750 -0.296875 -2.400000 61 61 61 
0.102362 -0.299213 -2.418898 128 128 128 
0.111111 -0.301587 -2.438095 78 78 78 
0.119048 -0.301587 -2.438095 101 101 101 
0.126984 -0.301587 -2.438095 164 164 164 
0.133858 -0.299213 -2.418898 117 117 117 
0.141732 -0.299213 -2.418898 101 101 101 
0.149606 -0.299213 -2.418898 126 126 126 
0.156250 -0.296875 -2.400000 59 59 59 
0.165354 -0.299213 -2.418898 143 143 143 
0.173228 -0.299213 -2.418898 71 71 71 
0.179688 -0.296875 -2.400000 88 88 88 
0.188976 -0.299213 -2.418898 101 101 101 
0.195312 -0.296875 -2.400000 131 131 131 
0.204724 -0.299213 -2.418898 143 143 143 
0.212598 -0.299213 -2.418898 98 98 98 
0.218750 -0.296875 -2.400000 82 82 82 
0.228346 -0.299213 -2.418898 121 121 121 
0.236220 -0.299213 -2.418898 28 28 28 
0.242188 -0.296875 -2.400000 130 130 130 
0.250000 -0.296875 -2.400000 131 131 131 
0.259843 -0.299213 -2.418898 140 140 140 
0.265625 -0.296875 -2.400000 140 140 140 
0.277778 -0.301587 -2.438095 141 141 141 
0.285714 -0.301587 -2.438095 146 146 146 
0.289062 -0.296875 -2.400000 120 120 120 
0.299213 -0.299213 -2.418898 70 70 70 
0.307087 -0.299213 -2.418898 101 101 101 
0.314961 -0.299213 -2.418898 116 116 116 
0.322835 -0.299213 -2.418898 87 87 87 
0.330709 -0.299213 -2.418898 129 129 129 
0.341270 -0.301587 -2.438095 75 75 75 
0.343750 -0.296875 -2.400000 92 92 92 
0.351562 -0.296875 -2.400000 141 141 141 
0.365079 -0.301587 -2.438095 143 143 143 
0.370079 -0.299213 -2.418898 135 135 135 
0.377953 -0.299213 -2.418898 136 136 136 
0.379845 -0.294574 -2.381395 135 135 135 
0.387597 -0.294574 -2.381395 132 132 132 
0.389313 -0.290076 -2.345038 128 128 128 
0.406250 -0.296875 -2.400000 123 123 123 
0.417323 -0.299213 -2.418898 118 118 118 
0.418605 -0.294574 -2.381395 119 119 119 
0.423077 -0.292308 -2.363077 117 117 117 
0.434109 -0.294574 -2.381395 112 112 112 
0.445312 -0.296875 -2.400000 103 103 103 
0.449612 -0.294574 -2.381395 99 99 99 
0.460938 -0.296875 -2.400000 94 94 94 
0.465116 -0.294574 -2.381395 91 91 91 
0.472868 -0.294574 -2.381395 87 87 87 
0.492063 -0.301587 -2.438095 88 88 88 
0.484615 -0.292308 -2.363077 83 83 83 
0.286957 -0.165217 -1.335652 80 80 80 
0.295154 -0.167401 -1.353304 78 78 78 
0.302222 -0.168889 -1.365333 77 77 77 
0.306667 -0.168889 -1.365333 72 72 72 
0.313901 -0.170404 -1.377578 70 70 70 
0.318386 -0.170404 -1.377578 65 65 65 
0.322870 -0.170404 -1.377578 63 63 63 
0.327354 -0.170404 -1.377578 59 59 59 
0.331839 -0.170404 -1.377578 55 55 55 
0.336323 -0.170404 -1.377578 50 50 50 
0.340807 -0.170404 -1.377578 50 50 50 
0.345291 -0.170404 -1.377578 52 52 52 
0.349776 -0.170404 -1.377578 69 69 69 
0.354260 -0.170404 -1.377578 77 77 77 
0.648000 -0.304000 -2.457600 77 77 77 
0.666667 -0.308943 -2.497561 78 78 78 
0.680328 -0.311475 -2.518033 77 77 77 
0.682927 -0.308943 -2.497561 79 79 79 
0.691057 -0.308943 -2.497561 76 76 76 
0.693548 -0.306452 -2.477419 71 71 71 
0.701613 -0.306452 -2.477419 35 35 35 
0.709677 -0.306452 -2.477419 14 14 14 
0.712000 -0.304000 -2.457600 19 19 19 
0.714286 -0.301587 -2.438095 20 20 20 
0.716535 -0.299213 -2.418898 20 20 20 
0.724409 -0.299213 -2.418898 21 21 21 
0.732283 -0.299213 -2.418898 21 21 21 
0.740157 -0.299213 -2.418898 17 17 17 
0.748031 -0.299213 -2.418898 16 16 16 
0.755906 -0.299213 -2.418898 18 18 18 
0.757812 -0.296875 -2.400000 16 16 16 
0.765625 -0.296875 -2.400000 18 18 18 
0.779528 -0.299213 -2.418898 21 21 21 
0.781250 -0.296875 -2.400000 18 18 18 
0.795276 -0.299213 -2.418898 21 21 21 
0.796875 -0.296875 -2.400000 39 39 39 
0.811024 -0.299213 -2.418898 108 108 108 
0.812500 -0.296875 -2.400000 89 89 89 
0.826772 -0.299213 -2.418898 113 113 113 
0.834646 -0.299213 -2.418898 109 109 109 
0.842520 -0.299213 -2.418898 80 80 80 
0.850394 -0.299213 -2.418898 66 66 66 
0.858268 -0.299213 -2.418898 50 50 50 
0.859375 -0.296875 -2.400000 44 44 44 
0.874016 -0.299213 -2.418898 36 36 36 
0.881890 -0.299213 -2.418898 36 36 36 
0.896825 -0.301587 -2.438095 22 22 22 
0.897638 -0.299213 -2.418898 18 18 18 
0.912698 -0.301587 -2.438095 15 15 15 
0.913386 -0.299213 -2.418898 15 15 15 
0.914062 -0.296875 -2.400000 14 14 14 
0.936508 -0.301587 -2.438095 16 16 16 
0.959677 -0.306452 -2.477419 17 17 17 
0.944882 -0.299213 -2.418898 19 19 19 
0.960317 -0.301587 -2.438095 16 16 16 
0.968254 -0.301587 -2.438095 17 17 17 
0.991935 -0.306452 -2.477419 14 14 14 
0.992000 -0.304000 -2.457600 14 14 14 
1.008065 -0.306452 -2.477419 11 11 11 
1.016129 -0.306452 -2.477419 20 20 20 
1.032520 -0.308943 -2.497561 57 57 57 
1.032258 -0.306452 -2.477419 63 63 63 
1.032000 -0.304000 -2.457600 59 59 59 
1.040000 -0.304000 -2.457600 59 59 59 
1.048000 -0.304000 -2.457600 60 60 60 
1.654321 -0.469136 -3.792593 58 58 58 
1.626506 -0.457831 -3.701205 56 56 56 
1.638554 -0.457831 -3.701205 54 54 54 
1.670732 -0.463415 -3.746342 55 55 55 
1.682927 -0.463415 -3.746342 60 60 60 
1.695122 -0.463415 -3.746342 54 54 54 
1.728395 -0.469136 -3.792593 51 51 51 
1.740741 -0.469136 -3.792593 38 38 38 
1.753086 -0.469136 -3.792593 44 44 44 
1.765432 -0.469136 -3.792593 59 59 59 
1.756098 -0.463415 -3.746342 59 59 59 
1.790123 -0.469136 -3.792593 58 58 58 
1.802469 -0.469136 -3.792593 58 58 58 
1.792683 -0.463415 -3.746342 56 56 56 
1.804878 -0.463415 -3.746342 59 59 59 
1.839506 -0.469136 -3.792593 57 57 57 
1.851852 -0.469136 -3.792593 55 55 55 
1.864197 -0.469136 -3.792593 44 44 44 
1.853659 -0.463415 -3.746342 47 47 47 
1.888889 -0.469136 -3.792593 55 55 55 
1.901235 -0.469136 -3.792593 56 56 56 
1.890244 -0.463415 -3.746342 53 53 53 
1.902439 -0.463415 -3.746342 57 57 57 
1.891566 -0.457831 -3.701205 59 59 59 
1.903614 -0.457831 -3.701205 61 61 61 
1.892857 -0.452381 -3.657143 60 60 60 
1.860465 -0.441860 -3.572093 62 62 62 
1.872093 -0.441860 -3.572093 66 66 66 
1.862069 -0.436782 -3.531035 80 80 80 
1.873563 -0.436782 -3.531035 89 89 89 
2.130952 -0.452381 -3.657143 95 95 95 
2.142857 -0.452381 -3.657143 84 84 84 
2.154762 -0.452381 -3.657143 80 80 80 
2.192771 -0.457831 -3.701205 81 81 81 
2.178571 -0.452381 -3.657143 85 85 85 
2.164706 -0.447059 -3.614118 81 81 81 
-2.023809 -0.464286 -3.657143 42 42 42 
-2.036144 -0.469880 -3.701205 51 51 51 
-1.976471 -0.458824 -3.614118 63 63 63 
-2.036585 -0.475610 -3.746342 70 70 70 
-2.000000 -0.469880 -3.701205 77 77 77 
-1.987952 -0.469880 -3.701205 78 78 78 
-1.975904 -0.469880 -3.701205 81 81 81 
-1.987805 -0.475610 -3.746342 83 83 83 
-1.975610 -0.475610 -3.746342 84 84 84 
-1.963415 -0.475610 -3.746342 85 85 85 
-1.975309 -0.481481 -3.792593 86 86 86 
-1.962963 -0.481481 -3.792593 87 87 87 
-1.975000 -0.487500 -3.840000 90 90 90 
-1.962500 -0.487500 -3.840000 90 90 90 
-1.950000 -0.487500 -3.840000 93 93 93 
-1.937500 -0.487500 -3.840000 93 93 93 
-1.925000 -0.487500 -3.840000 94 94 94 
-1.961538 -0.500000 -3.938462 96 96 96 
-1.924051 -0.493671 -3.888608 99 99 99 
-1.864197 -0.481481 -3.792593 99 99 99 
-1.948052 -0.506494 -3.989610 102 102 102 
-1.886076 -0.493671 -3.888608 100 100 100 
-1.873418 -0.493671 -3.888608 103 103 103 
-1.860759 -0.493671 -3.888608 104 104 104 
-1.802469 -0.481481 -3.792593 106 106 106 
-1.812500 -0.487500 -3.840000 107 107 107 
-1.777778 -0.481481 -3.792593 111 111 111 
-1.787500 -0.487500 -3.840000 113 113 113 
-1.775000 -0.487500 -3.840000 113 113 113 
-1.740741 -0.481481 -3.792593 114 114 114 
-1.750000 -0.487500 -3.840000 116 116 116 
-1.737500 -0.487500 -3.840000 119 119 119 
-1.746835 -0.493671 -3.888608 122 122 122 
-1.712500 -0.487500 -3.840000 120 120 120 
-1.700000 -0.487500 -3.840000 124 124 124 
-1.687500 -0.487500 -3.840000 125 125 125 
-1.675000 -0.487500 -3.840000 128 128 128 
-1.662500 -0.487500 -3.840000 126 126 126 
-1.650000 -0.487500 -3.840000 131 131 131 
-1.658228 -0.493671 -3.888608 131 131 131 
-1.625000 -0.487500 -3.840000 131 131 131 
-1.632911 -0.493671 -3.888608 130 130 130 
-1.620253 -0.493671 -3.888608 133 133 133 
-1.607595 -0.493671 -3.888608 135 135 135 
-1.594937 -0.493671 -3.888608 138 138 138 
-1.582278 -0.493671 -3.888608 137 137 137 
-1.569620 -0.493671 -3.888608 136 136 136 
-1.556962 -0.493671 -3.888608 131 131 131 
-1.544304 -0.493671 -3.888608 132 132 132 
-1.531646 -0.493671 -3.888608 138 138 138 
-1.518987 -0.493671 -3.888608 141 141 141 
-1.525641 -0.500000 -3.938462 146 146 146 
-1.475000 -0.487500 -3.840000 150 150 150 
-1.481013 -0.493671 -3.888608 148 148 148 
-1.487180 -0.500000 -3.938462 150 150 150 
-1.474359 -0.500000 -3.938462 152 152 152 
-1.443038 -0.493671 -3.888608 153 153 153 
-1.430380 -0.493671 -3.888608 149 149 149 
-1.417722 -0.493671 -3.888608 151 151 151 
-1.405063 -0.493671 -3.888608 148 148 148 
-1.375000 -0.487500 -3.840000 148 148 148 
-1.362500 -0.487500 -3.840000 146 146 146 
-1.350000 -0.487500 -3.840000 150 150 150 
-1.289157 -0.469880 -3.701205 147 147 147 
-1.277108 -0.469880 -3.701205 149 149 149 
-1.235294 -0.458824 -3.614118 147 147 147 
-1.209302 -0.453488 -3.572093 146 146 146 
-1.170455 -0.443182 -3.490909 145 145 145 
-1.133333 -0.433333 -3.413333 144 144 144 
-1.097826 -0.423913 -3.339131 140 140 140 
-1.063830 -0.414894 -3.268085 122 122 122 
-1.042105 -0.410526 -3.233684 47 47 47 
-1.020833 -0.406250 -3.200000 43 43 43 
-1.010417 -0.406250 -3.200000 25 25 25 
-1.000000 -0.406250 -3.200000 16 16 16 
-0.979381 -0.402062 -3.167011 16 16 16 
-0.969072 -0.402062 -3.167011 18 18 18 
-0.958763 -0.402062 -3.167011 30 30 30 
-0.958333 -0.406250 -3.200000 13 13 13 
-0.947917 -0.406250 -3.200000 19 19 19 
-0.937500 -0.406250 -3.200000 15 15 15 
-0.917526 -0.402062 -3.167011 80 80 80 
-0.907216 -0.402062 -3.167011 145 145 145 
-0.896907 -0.402062 -3.167011 112 112 112 
-0.877551 -0.397959 -3.134694 121 121 121 
-0.876289 -0.402062 -3.167011 118 118 118 
-0.857143 -0.397959 -3.134694 114 114 114 
-0.855670 -0.402062 -3.167011 114 114 114 
-0.481928 -0.234940 -1.850603 111 111 111 
-0.490683 -0.242236 -1.908075 109 109 109 
-0.487500 -0.243750 -1.920000 108 108 108 
-0.484277 -0.245283 -1.932076 106 106 106 
-0.475000 -0.243750 -1.920000 106 106 106 
-0.465839 -0.242236 -1.908075 164 164 164 
-0.459627 -0.242236 -1.908075 220 220 220 
-0.450617 -0.240741 -1.896296 203 203 203 
-0.441718 -0.239264 -1.884663 208 208 208 
-0.432927 -0.237805 -1.873171 206 206 206 
-0.429448 -0.239264 -1.884663 208 208 208 
-0.423313 -0.239264 -1.884663 210 210 210 
-0.409639 -0.234940 -1.850603 213 213 213 
-0.406061 -0.236364 -1.861818 216 216 216 
-0.402439 -0.237805 -1.873171 218 218 218 
-0.396341 -0.237805 -1.873171 218 218 218 
-0.387879 -0.236364 -1.861818 220 220 220 
-0.381818 -0.236364 -1.861818 219 219 219 
-0.373494 -0.234940 -1.850603 206 206 206 
-0.367470 -0.234940 -1.850603 162 162 162 
-0.361446 -0.234940 -1.850603 166 166 166 
-0.353293 -0.233533 -1.839521 178 178 178 
-0.347305 -0.233533 -1.839521 211 211 211 
-0.341317 -0.233533 -1.839521 222 222 222 
-0.335329 -0.233533 -1.839521 224 224 224 
-0.329341 -0.233533 -1.839521 226 226 226 
-0.321429 -0.232143 -1.828572 227 227 227 
-0.319277 -0.234940 -1.850603 228 228 228 
-0.307692 -0.230769 -1.817752 230 230 230 
-0.300000 -0.229412 -1.807059 231 231 231 
-0.294118 -0.229412 -1.807059 231 231 231 
-0.288235 -0.229412 -1.807059 231 231 231 
-0.282353 -0.229412 -1.807059 232 232 232 
-0.276471 -0.229412 -1.807059 234 234 234 
-0.270588 -0.229412 -1.807059 236 236 236 
-0.263158 -0.228070 -1.796491 237 237 237 
-0.258824 -0.229412 -1.807059 237 237 237 
-0.252941 -0.229412 -1.807059 238 238 238 
-0.245614 -0.228070 -1.796491 239 239 239 
-0.239766 -0.228070 -1.796491 239 239 239 
-0.233918 -0.228070 -1.796491 237 237 237 
-0.228070 -0.228070 -1.796491 220 220 220 
-0.222222 -0.228070 -1.796491 208 208 208 
-0.215116 -0.226744 -1.786047 202 202 202 
-0.210526 -0.228070 -1.796491 202 202 202 
-0.204678 -0.228070 -1.796491 217 217 217 
-0.197674 -0.226744 -1.786047 226 226 226 
-0.190751 -0.225434 -1.775723 220 220 220 
-0.184971 -0.225434 -1.775723 224 224 224 
-0.180233 -0.226744 -1.786047 224 224 224 
-0.174419 -0.226744 -1.786047 223 223 223 
-0.168605 -0.226744 -1.786047 222 222 222 
-0.162791 -0.226744 -1.786047 199 199 199 
-0.156069 -0.225434 -1.775723 94 94 94 
-0.151163 -0.226744 -1.786047 123 123 123 
-0.145349 -0.226744 -1.786047 108 108 108 
-0.139535 -0.226744 -1.786047 109 109 109 
-0.133721 -0.226744 -1.786047 171 171 171 
-0.128655 -0.228070 -1.796491 231 231 231 
-0.122807 -0.228070 -1.796491 227 227 227 
-0.116959 -0.228070 -1.796491 233 233 233 
-0.111765 -0.229412 -1.807059 234 234 234 
-0.106509 -0.230769 -1.817752 192 192 192 
-0.100592 -0.230769 -1.817752 134 134 134 
-0.094675 -0.230769 -1.817752 159 159 159 
-0.089286 -0.232143 -1.828572 177 177 177 
-0.082840 -0.230769 -1.817752 143 143 143 
-0.077381 -0.232143 -1.828572 174 174 174 
-0.071006 -0.230769 -1.817752 189 189 189 
-0.065089 -0.230769 -1.817752 184 184 184 
-0.059172 -0.230769 -1.817752 187 187 187 
-0.053571 -0.232143 -1.828572 186 186 186 
-0.047904 -0.233533 -1.839521 183 183 183 
-0.041916 -0.233533 -1.839521 161 161 161 
-0.035928 -0.233533 -1.839521 92 92 92 
-0.030120 -0.234940 -1.850603 80 80 80 
-0.024096 -0.234940 -1.850603 89 89 89 
-0.018182 -0.236364 -1.861818 96 96 96 
-0.012048 -0.234940 -1.850603 189 189 189 
-0.006061 -0.236364 -1.861818 184 184 184 
0.000000 -0.237805 -1.873171 181 181 181 
0.006098 -0.237805 -1.873171 175 175 175 
0.012121 -0.236364 -1.861818 177 177 177 
0.018293 -0.237805 -1.873171 175 175 175 
0.024242 -0.236364 -1.861818 145 145 145 
0.030303 -0.236364 -1.861818 56 56 56 
0.037037 -0.240741 -1.896296 77 77 77 
0.042683 -0.237805 -1.873171 68 68 68 
0.076336 -0.297710 -2.345038 166 166 166 
0.084615 -0.300000 -2.363077 126 126 126 
0.093750 -0.304688 -2.400000 124 124 124 
0.102362 -0.307087 -2.418898 82 82 82 
0.111111 -0.309524 -2.438095 57 57 57 
0.119048 -0.309524 -2.438095 82 82 82 
0.126984 -0.309524 -2.438095 173 173 173 
0.133858 -0.307087 -2.418898 64 64 64 
0.141732 -0.307087 -2.418898 91 91 91 
0.150794 -0.309524 -2.438095 129 129 129 
0.157480 -0.307087 -2.418898 52 52 52 
0.165354 -0.307087 -2.418898 147 147 147 
0.174603 -0.309524 -2.438095 30 30 30 
0.181102 -0.307087 -2.418898 74 74 74 
0.188976 -0.307087 -2.418898 53 53 53 
0.195312 -0.304688 -2.400000 111 111 111 
0.204724 -0.307087 -2.418898 133 133 133 
0.212598 -0.307087 -2.418898 10 10 10 
0.220472 -0.307087 -2.418898 50 50 50 
0.228346 -0.307087 -2.418898 86 86 86 
0.236220 -0.307087 -2.418898 54 54 54 
0.242188 -0.304688 -2.400000 58 58 58 
0.250000 -0.304688 -2.400000 57 57 57 
0.259843 -0.307087 -2.418898 146 146 146 
0.265625 -0.304688 -2.400000 140 140 140 
0.277778 -0.309524 -2.438095 137 137 137 
0.285714 -0.309524 -2.438095 143 143 143 
0.289062 -0.304688 -2.400000 135 135 135 
0.301587 -0.309524 -2.438095 114 114 114 
0.307087 -0.307087 -2.418898 113 113 113 
0.314961 -0.307087 -2.418898 119 119 119 
0.322835 -0.307087 -2.418898 120 120 120 
0.330709 -0.307087 -2.418898 129 129 129 
0.341270 -0.309524 -2.438095 125 125 125 
0.343750 -0.304688 -2.400000 130 130 130 
0.354331 -0.307087 -2.418898 139 139 139 
0.365079 -0.309524 -2.438095 142 142 142 
0.370079 -0.307087 -2.418898 139 139 139 
0.380952 -0.309524 -2.438095 139 139 139 
0.379845 -0.302326 -2.381395 137 137 137 
0.387597 -0.302326 -2.381395 139 139 139 
0.389313 -0.297710 -2.345038 135 135 135 
0.406250 -0.304688 -2.400000 134 134 134 
0.417323 -0.307087 -2.418898 126 126 126 
0.421875 -0.304688 -2.400000 109 109 109 
0.426357 -0.302326 -2.381395 112 112 112 
0.437500 -0.304688 -2.400000 120 120 120 
0.448819 -0.307087 -2.418898 112 112 112 
0.453125 -0.304688 -2.400000 109 109 109 
0.464567 -0.307087 -2.418898 102 102 102 
0.468750 -0.304688 -2.400000 97 97 97 
0.476562 -0.304688 -2.400000 92 92 92 
0.496000 -0.312000 -2.457600 92 92 92 
0.492188 -0.304688 -2.400000 88 88 88 
0.488550 -0.297710 -2.345038 87 87 87 
0.295154 -0.171806 -1.353304 82 82 82 
0.303571 -0.174107 -1.371429 77 77 77 
0.306667 -0.173333 -1.365333 73 73 73 
0.313901 -0.174888 -1.377578 73 73 73 
0.318386 -0.174888 -1.377578 69 69 69 
0.322870 -0.174888 -1.377578 67 67 67 
0.328829 -0.175676 -1.383784 64 64 64 
0.333333 -0.175676 -1.383784 61 61 61 
0.337838 -0.175676 -1.383784 59 59 59 
0.342342 -0.175676 -1.383784 58 58 58 
0.345291 -0.174888 -1.377578 57 57 57 
0.349776 -0.174888 -1.377578 66 66 66 
0.354260 -0.174888 -1.377578 78 78 78 
0.648000 -0.312000 -2.457600 77 77 77 
0.661290 -0.314516 -2.477419 78 78 78 
0.674797 -0.317073 -2.497561 77 77 77 
0.682927 -0.317073 -2.497561 79 79 79 
0.685484 -0.314516 -2.477419 77 77 77 
0.688000 -0.312000 -2.457600 70 70 70 
0.701613 -0.314516 -2.477419 31 31 31 
0.709677 -0.314516 -2.477419 14 14 14 
0.712000 -0.312000 -2.457600 19 19 19 
0.714286 -0.309524 -2.438095 20 20 20 
0.722222 -0.309524 -2.438095 19 19 19 
0.724409 -0.307087 -2.418898 22 22 22 
0.732283 -0.307087 -2.418898 18 18 18 
0.734375 -0.304688 -2.400000 19 19 19 
0.748031 -0.307087 -2.418898 17 17 17 
0.755906 -0.307087 -2.418898 17 17 17 
0.757812 -0.304688 -2.400000 15 15 15 
0.765625 -0.304688 -2.400000 20 20 20 
0.779528 -0.307087 -2.418898 21 21 21 
0.781250 -0.304688 -2.400000 19 19 19 
0.795276 -0.307087 -2.418898 19 19 19 
0.803150 -0.307087 -2.418898 31 31 31 
0.811024 -0.307087 -2.418898 70 70 70 
0.812500 -0.304688 -2.400000 105 105 105 
0.826772 -0.307087 -2.418898 102 102 102 
0.834646 -0.307087 -2.418898 104 104 104 
0.842520 -0.307087 -2.418898 87 87 87 
0.850394 -0.307087 -2.418898 71 71 71 
0.858268 -0.307087 -2.418898 55 55 55 
0.866142 -0.307087 -2.418898 39 39 39 
0.880952 -0.309524 -2.438095 32 32 32 
0.881890 -0.307087 -2.418898 31 31 31 
0.896825 -0.309524 -2.438095 18 18 18 
0.897638 -0.307087 -2.418898 16 16 16 
0.912698 -0.309524 -2.438095 16 16 16 
0.913386 -0.307087 -2.418898 16 16 16 
0.921260 -0.307087 -2.418898 15 15 15 
0.936508 -0.309524 -2.438095 15 15 15 
0.959677 -0.314516 -2.477419 17 17 17 
0.944882 -0.307087 -2.418898 18 18 18 
0.960317 -0.309524 -2.438095 16 16 16 
0.968254 -0.309524 -2.438095 15 15 15 
0.991935 -0.314516 -2.477419 13 13 13 
0.992000 -0.312000 -2.457600 13 13 13 
1.008065 -0.314516 -2.477419 11 11 11 
1.008000 -0.312000 -2.457600 20 20 20 
1.024194 -0.314516 -2.477419 57 57 57 
1.032258 -0.314516 -2.477419 62 62 62 
1.032000 -0.312000 -2.457600 56 56 56 
1.040000 -0.312000 -2.457600 59 59 59 
1.048000 -0.312000 -2.457600 59 59 59 
1.064516 -0.314516 -2.477419 59 59 59 
1.634146 -0.475610 -3.746342 55 55 55 
1.626506 -0.469880 -3.701205 52 52 52 
1.638554 -0.469880 -3.701205 55 55 55 
1.670732 -0.475610 -3.746342 54 54 54 
1.682927 -0.475610 -3.746342 53 53 53 
1.695122 -0.475610 -3.746342 47 47 47 
1.728395 -0.481481 -3.792593 46 46 46 
1.740741 -0.481481 -3.792593 45 45 45 
1.753086 -0.481481 -3.792593 43 43 43 
1.765432 -0.481481 -3.792593 48 48 48 
1.756098 -0.475610 -3.746342 59 59 59 
1.790123 -0.481481 -3.792593 56 56 56 
1.802469 -0.481481 -3.792593 58 58 58 
1.792683 -0.475610 -3.746342 56 56 56 
1.827160 -0.481481 -3.792593 56 56 56 
1.839506 -0.481481 -3.792593 53 53 53 
1.851852 -0.481481 -3.792593 49 49 49 
1.864197 -0.481481 -3.792593 50 50 50 
1.853659 -0.475610 -3.746342 53 53 53 
1.888889 -0.481481 -3.792593 48 48 48 
1.901235 -0.481481 -3.792593 53 53 53 
1.890244 -0.475610 -3.746342 54 54 54 
1.925926 -0.481481 -3.792593 53 53 53 
1.914634 -0.475610 -3.746342 54 54 54 
1.903614 -0.469880 -3.701205 61 61 61 
1.892857 -0.464286 -3.657143 61 61 61 
1.882353 -0.458824 -3.614118 61 61 61 
1.872093 -0.453488 -3.572093 66 66 66 
1.862069 -0.448276 -3.531035 80 80 80 
1.873563 -0.448276 -3.531035 89 89 89 
1.885057 -0.448276 -3.531035 101 101 101 
1.896552 -0.448276 -3.531035 107 107 107 
1.886364 -0.443182 -3.490909 111 111 111 
1.714286 -0.397959 -3.134694 117 117 117 
2.130952 -0.464286 -3.657143 102 102 102 
2.142857 -0.464286 -3.657143 90 90 90 
2.154762 -0.464286 -3.657143 77 77 77 
2.192771 -0.469880 -3.701205 73 73 73 
2.204819 -0.469880 -3.701205 68 68 68 
2.190476 -0.464286 -3.657143 68 68 68 
-2.023809 -0.476190 -3.657143 36 36 36 
-2.036144 -0.481928 -3.701205 38 38 38 
-2.000000 -0.476190 -3.657143 51 51 51 
-2.036585 -0.487805 -3.746342 60 60 60 
-2.000000 -0.481928 -3.701205 70 70 70 
-1.964286 -0.476190 -3.657143 76 76 76 
-1.975904 -0.481928 -3.701205 81 81 81 
-1.963855 -0.481928 -3.701205 80 80 80 
-1.975610 -0.487805 -3.746342 83 83 83 
